# .PCD v0.7 - Point Cloud Data file format
VERSION 0.7
FIELDS x y z intensity
SIZE 4 4 4 4
TYPE F F F F
COUNT 1 1 1 1
WIDTH 1272
HEIGHT 1
VIEWPOINT 0 0 0 1 0 0 0
POINTS 1272
DATA ascii
-2.3625116 -2.777467 2.0000000957 10
-2.3366725 -2.7723303 2.0000000979 10
-2.2753694 -2.7708359 2.0000000905 10
-2.159399 -2.7943454 2.0000000874 10
-2.0293469 -2.7856872 2.0000000962 10
0.74927521 -2.7803822 2.0000000983 10
1.5995469 -2.7764118 2.0000000998 10
1.6355194 -2.7882898 2.0000000979 10
1.6823691 -2.7786684 2.0000000957 10
1.7212961 -2.7905657 2.0000000958 10
1.7746525 -2.7959735 2.0000000975 10
1.8251262 -2.7822258 2.0000000951 10
1.873265 -2.7768922 2.000000095 10
1.924526 -2.7780724 2.0000000949 10
1.98376 -2.7820988 2.0000000924 10
2.0255432 -2.7902112 2.0000000943 10
2.0742488 -2.7833798 2.0000000919 10
2.1306164 -2.7919905 2.0000000928 10
2.168309 -2.7810395 2.0000000923 10
2.2188332 -2.7884791 2.0000000918 10
2.2796314 -2.7942379 2.0000000927 10
2.3108251 -2.7899835 2.0000000973 10
2.3736959 -2.7980969 2.0000000974 10
2.4240274 -2.7783203 2.0000000899 10
2.4517999 -2.7619395 2.0000000899 10
2.5379186 -2.7806368 2.0000000948 10
2.5774529 -2.7881691 2.0000000992 10
2.6373308 -2.7770717 2.0000000985 10
2.6695681 -2.7783353 2.0000000993 10
2.8188591 -2.7857773 2.0000000987 10
3.2471266 -2.7978406 2.0000000992 10
3.4469247 -2.7830529 2.0000000853 10
3.726337 -2.7862689 2.0000000923 10
3.7674007 -2.7945485 2.000000085 10
4.2984505 -2.7704711 2.0000000993 10
4.8915739 -2.7897475 2.0000000989 10
4.9411716 -2.7990158 2.0000000968 10
5.2672467 -2.7796049 2.0000000958 10
5.326478 -2.7786608 2.0000000943 10
5.3790483 -2.7966132 2.0000000832 10
5.6430597 -2.7597044 2.0000000971 10
5.6626334 -2.7663431 2.0000000921 10
5.7325096 -2.7786272 2.0000000939 10
5.7809925 -2.7743847 2.0000000931 10
5.8013563 -2.7567711 2.0000000996 10
-2.3626425 -2.7270303 2.000000094 10
-2.3326097 -2.7217584 2.0000000968 10
-2.2676258 -2.7138476 2.0000000871 10
-2.2369637 -2.7470081 2.0000000987 10
-2.135757 -2.715919 2.0000000973 10
-1.7079375 -2.7279592 2.0000000913 10
-1.4216262 -2.7448676 2.0000000975 10
1.4073197 -2.7050436 2.000000098 10
1.4849236 -2.7066989 2.0000000955 10
1.5304765 -2.734401 2.000000098 10
1.6538779 -2.7479606 2.0000000981 10
1.8063953 -2.736773 2.0000000988 10
1.8557367 -2.7221408 2.0000000988 10
2.8349299 -2.7266154 2.0000000983 10
3.1692188 -2.7326155 2.0000000993 10
3.7060161 -2.7320065 2.0000000994 10
3.7601559 -2.7435827 2.0000000994 10
5.6606588 -2.7416446 2.0000000971 10
5.7266755 -2.7212913 2.0000000996 10
5.7722006 -2.724968 2.0000000958 10
-2.365412 -2.6718054 2.0000000931 10
-2.3350768 -2.6724904 2.0000000963 10
-2.2954752 -2.6797905 2.0000000926 10
-1.862129 -2.671828 2.0000000994 10
-1.7844756 -2.6514738 2.0000000994 10
1.1974337 -2.6946054 2.0000000975 10
1.6534002 -2.6603749 2.0000000964 10
2.8352778 -2.6809838 2.0000000985 10
3.0999308 -2.6785166 2.0000000889 10
3.289855 -2.6996105 2.0000000887 10
3.7343082 -2.6790147 2.0000000994 10
5.6654091 -2.6881363 2.0000000971 10
5.7277546 -2.6620553 2.0000000942 10
5.7691007 -2.6784966 2.0000000951 10
5.8096137 -2.6556005 2.0000000996 10
-2.365499 -2.6256306 2.0000000957 10
-2.3324358 -2.6260107 2.0000000956 10
-2.2972491 -2.6148591 2.0000000976 10
-2.2092562 -2.6292439 2.0000000976 10
-1.9695697 -2.6046319 2.0000000977 10
1.8157357 -2.6357841 2.0000000992 10
2.7340581 -2.6368201 2.000000099 10
3.1732709 -2.648782 2.0000000986 10
4.2229757 -2.6154852 2.0000000993 10
5.5840249 -2.6161647 2.0000000998 10
5.6647 -2.628556 2.0000000973 10
5.7258182 -2.6167991 2.000000097 10
5.7729802 -2.6249096 2.000000093 10
-2.3619595 -2.5758314 2.0000000937 10
-2.324899 -2.5775106 2.0000000962 10
-2.2817569 -2.5748603 2.0000000949 10
-1.9460268 -2.5765047 2.0000000979 10
-1.3545624 -2.5664141 2.0000000974 10
-1.3252811 -2.5605216 2.0000000959 10
-1.2849309 -2.5565138 2.0000000928 10
-1.2141223 -2.5552671 2.0000000979 10
-1.1314869 -2.554388 2.0000000964 10
-1.0830425 -2.5560617 2.0000000986 10
-1.0319828 -2.5501757 2.0000000899 10
-0.95836741 -2.5512927 2.000000094 10
-0.93686199 -2.5582206 2.000000094 10
-0.88349497 -2.551187 2.0000000979 10
-0.81464785 -2.5536163 2.000000097 10
-0.77525711 -2.5554497 2.0000000982 10
-0.70873982 -2.5533724 2.0000000959 10
-0.6714294 -2.5581064 2.0000000945 10
-0.62409925 -2.5603204 2.0000000987 10
-0.56940889 -2.5593574 2.0000000995 10
-0.52276945 -2.5594003 2.0000000987 10
-0.47232124 -2.5578804 2.0000000987 10
-0.43288693 -2.5535586 2.0000000992 10
-0.3813529 -2.5534127 2.0000000995 10
-0.32407475 -2.5517747 2.000000099 10
-0.19235614 -2.5512757 2.0000000981 10
-0.032177925 -2.5502877 2.0000000993 10
0.12525225 -2.553838 2.0000000987 10
0.34426787 -2.553175 2.0000000982 10
0.79209781 -2.5661438 2.000000098 10
1.2076123 -2.5802372 2.000000099 10
1.6738731 -2.5945556 2.0000000915 10
2.5530071 -2.576462 2.0000000995 10
2.7343409 -2.5833051 2.000000099 10
5.5653167 -2.5869503 2.0000000998 10
5.6543899 -2.5773742 2.0000000973 10
5.7328186 -2.5767803 2.0000000965 10
5.7725945 -2.5795896 2.0000000939 10
-2.3659818 -2.5313115 2.0000000942 10
-2.3291996 -2.5190966 2.0000000954 10
-2.2949805 -2.5220728 2.0000000927 10
-1.9685054 -2.5144238 2.0000000914 10
-1.9253261 -2.5429642 2.0000000994 10
-1.8932033 -2.5047066 2.0000000993 10
-1.7671587 -2.5167484 2.0000000976 10
-1.3501565 -2.5479987 2.0000000994 10
-1.3181404 -2.5271811 2.0000000973 10
-1.2751456 -2.5270131 2.0000000977 10
-1.2243232 -2.5250437 2.0000000973 10
-1.1761034 -2.5259035 2.0000000975 10
-1.1249192 -2.526166 2.0000000968 10
-1.0739114 -2.5235493 2.0000000973 10
-1.0249056 -2.5255866 2.0000000974 10
-0.97685254 -2.5258245 2.000000097 10
-0.92300415 -2.528933 2.0000000979 10
-0.87420684 -2.5293255 2.0000000969 10
-0.82537049 -2.5320537 2.0000000971 10
-0.77415341 -2.5313578 2.0000000975 10
-0.72627825 -2.5307317 2.0000000971 10
-0.67493391 -2.5308032 2.0000000977 10
-0.62483841 -2.529952 2.0000000974 10
-0.57491934 -2.5322497 2.0000000974 10
-0.52536225 -2.5320776 2.0000000965 10
-0.47440922 -2.5321198 2.0000000969 10
-0.42312241 -2.5273855 2.0000000969 10
-0.37446213 -2.5219767 2.0000000979 10
-0.32542703 -2.5223606 2.0000000982 10
-0.27463782 -2.5197093 2.0000000976 10
-0.2247334 -2.5199413 2.0000000977 10
-0.17636225 -2.5199888 2.0000000982 10
-0.12405679 -2.519686 2.0000000977 10
-0.076862872 -2.5218661 2.0000000979 10
-0.026206285 -2.5203297 2.0000000982 10
0.024662597 -2.5211103 2.0000000976 10
0.073978782 -2.5195768 2.0000000986 10
0.12209282 -2.5216885 2.0000000974 10
0.17591746 -2.522161 2.0000000982 10
0.22353329 -2.5167732 2.0000000988 10
0.27721095 -2.5163834 2.0000000982 10
0.32720304 -2.5146394 2.0000000985 10
0.37644476 -2.5191226 2.0000000985 10
0.42636195 -2.5191333 2.0000000979 10
0.47034076 -2.5202043 2.000000098 10
0.52190781 -2.5093689 2.0000000954 10
0.66316557 -2.5420763 2.0000000987 10
0.76842403 -2.5347466 2.0000000939 10
0.82744527 -2.5156171 2.000000098 10
1.3974112 -2.5384049 2.0000000952 10
1.4965512 -2.5336518 2.0000000976 10
1.7160462 -2.5168393 2.0000000914 10
1.8043184 -2.5260115 2.0000000992 10
3.1308737 -2.519141 2.0000000986 10
4.0819325 -2.5213654 2.0000000995 10
4.126771 -2.5180113 2.0000000994 10
4.1846066 -2.5314898 2.0000000994 10
4.2844534 -2.5142226 2.0000000993 10
4.3382673 -2.5459974 2.000000099 10
5.4859653 -2.5097136 2.0000000994 10
5.6604834 -2.5462654 2.0000000973 10
5.729867 -2.5221293 2.0000000963 10
5.7634892 -2.5244679 2.0000000938 10
5.8054814 -2.5431542 2.0000000996 10
-2.3605754 -2.479784 2.0000000959 10
-2.3264921 -2.4727223 2.000000097 10
-1.9676852 -2.4698758 2.0000000987 10
-1.8762729 -2.4875572 2.000000099 10
-1.8158224 -2.4532781 2.0000000976 10
-1.2706908 -2.4809954 2.0000000913 10
-1.2473974 -2.4936619 2.0000000993 10
-1.1824998 -2.4927862 2.0000000994 10
-1.1419849 -2.4936512 2.0000000955 10
-1.0999805 -2.4957974 2.0000000982 10
-1.0337783 -2.4972401 2.0000000989 10
-0.96625292 -2.4936261 2.0000000942 10
-0.9291141 -2.4892633 2.0000000954 10
-0.85980237 -2.4994302 2.0000000994 10
-0.82222044 -2.4944911 2.0000000995 10
-0.78670347 -2.4939613 2.0000000995 10
-0.72925973 -2.4964709 2.0000000995 10
-0.67569053 -2.4921951 2.0000000989 10
-0.60937321 -2.486527 2.0000000995 10
-0.57391632 -2.4839144 2.0000000995 10
-0.4859758 -2.4932775 2.0000000931 10
-0.44297493 -2.4987082 2.0000000995 10
-0.3775529 -2.4918134 2.000000098 10
-0.32786778 -2.4913423 2.0000000963 10
-0.2777386 -2.4911354 2.0000000968 10
-0.2247041 -2.4921992 2.0000000977 10
-0.16912016 -2.4934418 2.000000094 10
-0.12478435 -2.4923544 2.0000000957 10
-0.07205651 -2.4953866 2.0000000951 10
-0.028742228 -2.4906971 2.0000000945 10
0.025397215 -2.4940171 2.0000000928 10
0.076367319 -2.4876649 2.000000094 10
0.12848371 -2.4837599 2.0000000968 10
0.17301185 -2.4754057 2.0000000988 10
0.22594713 -2.4865615 2.0000000983 10
0.27724007 -2.4868736 2.0000000988 10
0.32758585 -2.4886577 2.000000097 10
0.37474567 -2.4889214 2.0000000964 10
0.42608175 -2.4815366 2.000000097 10
0.46824726 -2.4889953 2.0000000938 10
0.51458663 -2.4774213 2.0000000933 10
0.66878009 -2.481909 2.0000000987 10
0.71445131 -2.4919908 2.0000000987 10
0.75378811 -2.4505684 2.0000000986 10
2.8625455 -2.4692078 2.0000000981 10
4.0793505 -2.4924746 2.0000000995 10
4.1154194 -2.4819679 2.0000000988 10
4.1788526 -2.4881952 2.0000000994 10
5.6400414 -2.4838002 2.0000000973 10
5.7359924 -2.4739122 2.0000000986 10
5.7736897 -2.4768312 2.0000000926 10
-5.8790812 -2.4151392 2.0000000951 10
-5.8245106 -2.4072511 2.000000097 10
-2.3619165 -2.4245465 2.0000000942 10
-2.3333423 -2.4264064 2.0000000962 10
-2.2944748 -2.4287784 2.0000000943 10
-1.9918393 -2.4395921 2.0000000981 10
-1.9121782 -2.4033027 2.0000000985 10
-1.7512312 -2.4338305 2.0000000993 10
-1.6637342 -2.4277482 2.0000000976 10
-1.3274426 -2.4103851 2.0000000979 10
-0.21552348 -2.4278333 2.0000000992 10
-0.18453383 -2.4375653 2.0000000976 10
0.023221493 -2.4150279 2.0000000959 10
0.12975097 -2.4224653 2.0000000993 10
0.32455158 -2.4128773 2.0000000998 10
0.3713789 -2.4326293 2.0000000979 10
0.40680456 -2.4453518 2.0000000999 10
0.47451422 -2.4397607 2.000000094 10
0.50721192 -2.4219303 2.0000000979 10
0.74715614 -2.4289274 2.0000000983 10
0.8290379 -2.433527 2.000000094 10
1.4801294 -2.4214354 2.0000000981 10
1.6869283 -2.410892 2.0000000992 10
2.2939923 -2.4038155 2.0000000961 10
2.3371396 -2.416095 2.0000000994 10
3.0640171 -2.4145525 2.0000000964 10
4.1360531 -2.4388025 2.0000000988 10
4.1860223 -2.4443498 2.0000000993 10
4.2029238 -2.4317656 2.0000000993 10
5.3507333 -2.4429142 2.0000000998 10
5.6276598 -2.4314449 2.0000000974 10
5.6649299 -2.4378431 2.0000000974 10
5.7340598 -2.4241316 2.0000000979 10
5.7615681 -2.4209476 2.0000000911 10
-5.8630037 -2.3712547 2.0000000962 10
-5.8147283 -2.3681571 2.0000000981 10
-5.7901402 -2.3695636 2.0000000942 10
-5.7283792 -2.3667839 2.0000000943 10
-2.3644278 -2.37637 2.000000095 10
-2.3348432 -2.3734827 2.000000097 10
-2.2946684 -2.3840117 2.0000000955 10
-1.915346 -2.3691461 2.000000092 10
-1.8826666 -2.3556218 2.0000000894 10
-1.8409491 -2.384202 2.0000000977 10
-1.7663257 -2.3517375 2.0000000977 10
-1.4788892 -2.369122 2.0000000961 10
0.27914429 -2.3545563 2.0000000998 10
0.31845212 -2.3909512 2.0000000983 10
0.37699866 -2.3718424 2.0000000959 10
0.40476584 -2.3513219 2.0000000987 10
0.46958542 -2.3509402 2.0000000933 10
0.76673043 -2.361748 2.0000000986 10
0.8565014 -2.3694468 2.000000098 10
1.4474733 -2.3577569 2.0000000981 10
1.5207368 -2.3781195 2.0000000976 10
4.0945973 -2.3503175 2.0000000995 10
4.1079493 -2.3641014 2.0000000995 10
5.2654171 -2.3788733 2.0000000851 10
5.6547799 -2.3886411 2.0000000974 10
5.7240849 -2.3692598 2.0000000971 10
5.7674809 -2.3698502 2.0000000943 10
-5.9133062 -2.3078804 2.0000000945 10
-5.8800869 -2.3256066 2.00000009 10
-5.8148866 -2.3382888 2.0000000967 10
-5.7644272 -2.3155403 2.0000000964 10
-5.7305965 -2.3359406 2.0000000975 10
-5.668942 -2.3219042 2.0000000912 10
-5.637536 -2.3280621 2.0000000837 10
-5.5787325 -2.3104429 2.0000000838 10
-2.3620992 -2.3239434 2.000000095 10
-2.3304777 -2.3267448 2.000000097 10
-2.2890809 -2.3249176 2.0000000901 10
-1.9520123 -2.3417981 2.0000000989 10
-1.9085969 -2.3288357 2.000000097 10
-1.8800659 -2.3305604 2.0000000968 10
-1.8472393 -2.3103175 2.000000087 10
-1.5767329 -2.3443499 2.0000000985 10
-1.5302751 -2.3390653 2.0000000994 10
-1.3750463 -2.3001628 2.0000000988 10
-1.300323 -2.3096344 2.0000000977 10
-0.053292751 -2.3325682 2.0000000921 10
0.37932968 -2.3419013 2.0000000931 10
0.4363153 -2.3156261 2.0000000955 10
0.47928643 -2.3408062 2.000000098 10
0.72845697 -2.3418012 2.0000000999 10
0.79256606 -2.3493357 2.000000094 10
1.3660655 -2.3084097 2.0000000982 10
1.7117376 -2.3405209 2.0000000993 10
2.7942348 -2.3084512 2.0000000995 10
4.2395811 -2.3150649 2.0000000994 10
4.5111232 -2.317142 2.0000000994 10
5.2711377 -2.3470881 2.0000000958 10
5.6482921 -2.3441036 2.0000000974 10
5.6651053 -2.3349416 2.0000000923 10
5.730269 -2.3245215 2.0000000971 10
5.767755 -2.3215122 2.0000000928 10
-5.9515109 -2.2848992 2.0000000965 10
-5.9058352 -2.2818222 2.000000097 10
-2.3621888 -2.2708466 2.0000000943 10
-2.3354623 -2.2809174 2.0000000975 10
-1.4138162 -2.2907727 2.0000000992 10
-1.3623621 -2.2843881 2.0000000977 10
-0.10474229 -2.2866228 2.0000000992 10
-0.078984261 -2.2949114 2.0000000977 10
0.19569498 -2.2918537 2.000000098 10
0.22022462 -2.2995059 2.0000000996 10
0.44412565 -2.2698448 2.0000000998 10
0.51925826 -2.289566 2.0000000934 10
0.77023935 -2.2709599 2.000000099 10
0.82251674 -2.2817883 2.000000099 10
1.3837214 -2.2829537 2.0000000954 10
1.5954072 -2.2697968 2.0000000977 10
2.5674663 -2.2541308 2.000000098 10
3.5025496 -2.2771409 2.0000000968 10
4.2197223 -2.2852099 2.0000000995 10
4.449965 -2.2703981 2.0000000993 10
4.457231 -2.2732797 2.0000000996 10
5.6602898 -2.2846954 2.0000000975 10
5.7408299 -2.2724957 2.0000000976 10
5.7652874 -2.2729979 2.0000000928 10
-5.9356012 -2.2036178 2.0000000954 10
-5.8733578 -2.2020664 2.0000000906 10
-5.7234464 -2.2414277 2.0000000968 10
-2.3583441 -2.2247665 2.0000000952 10
-2.332047 -2.2282634 2.000000097 10
-2.2936494 -2.2444201 2.0000000946 10
-1.3720973 -2.2303696 2.0000000993 10
0.1217348 -2.2302749 2.0000000971 10
0.31040454 -2.2177415 2.0000000977 10
0.70721221 -2.207963 2.0000000999 10
0.7722953 -2.219203 2.0000000989 10
0.88415021 -2.2346387 2.0000000986 10
0.90448272 -2.2455926 2.000000099 10
1.3362284 -2.2483156 2.0000000987 10
1.5823472 -2.2219887 2.0000000986 10
1.6257873 -2.2197762 2.0000000974 10
2.9013557 -2.2334294 2.0000000987 10
3.1892538 -2.2456496 2.0000000888 10
3.2486057 -2.2420094 2.0000000999 10
3.2705975 -2.202646 2.0000000999 10
3.3436937 -2.2345705 2.0000000994 10
4.0328622 -2.2063117 2.0000000995 10
4.0614629 -2.2011199 2.0000000995 10
4.1880188 -2.2341492 2.0000000995 10
4.4137549 -2.238966 2.0000000996 10
5.6588316 -2.2287524 2.0000000975 10
5.7385454 -2.2213345 2.0000000957 10
5.7703772 -2.2267814 2.0000000933 10
-5.9200668 -2.156086 2.0000000959 10
-5.7739286 -2.1835499 2.0000000959 10
-2.3574874 -2.1731868 2.0000000938 10
-2.3367963 -2.1773465 2.0000000963 10
-2.2943149 -2.1766419 2.0000000931 10
-1.3640819 -2.1841767 2.0000000988 10
-1.2147472 -2.1574044 2.0000000878 10
0.17732161 -2.1827655 2.0000000992 10
0.3147316 -2.1937487 2.0000000996 10
0.59238017 -2.1584389 2.000000098 10
0.72842312 -2.1915817 2.0000000999 10
0.77890468 -2.1574678 2.0000000989 10
0.82721233 -2.1582363 2.0000000998 10
0.887034 -2.1952271 2.000000099 10
0.93291128 -2.1758828 2.000000099 10
0.95063472 -2.1603937 2.0000000982 10
1.276011 -2.1922305 2.0000000998 10
1.3844271 -2.194576 2.0000000995 10
1.5607822 -2.1725688 2.0000000987 10
2.2283702 -2.1723585 2.0000000994 10
2.7120025 -2.1669297 2.0000000912 10
2.9016891 -2.1591144 2.0000000977 10
3.0182183 -2.1663775 2.0000000914 10
3.1633844 -2.1972482 2.0000000965 10
3.2226372 -2.1508172 2.0000000999 10
4.0370231 -2.1904559 2.0000000995 10
4.0746074 -2.1799242 2.0000000996 10
4.3312588 -2.1672843 2.0000000989 10
4.3729472 -2.1882918 2.0000000989 10
5.6609802 -2.1774309 2.0000000975 10
5.7397795 -2.1726308 2.0000000974 10
5.7693214 -2.1771991 2.0000000932 10
-5.9203725 -2.1131864 2.0000000968 10
-5.877583 -2.1160605 2.0000000971 10
-5.8445005 -2.1217654 2.0000000971 10
-5.7892976 -2.148005 2.0000000964 10
-5.7136302 -2.1006815 2.0000000975 10
-5.442832 -2.1343653 2.0000000933 10
-2.3573802 -2.1206098 2.0000000932 10
-2.3315525 -2.1258304 2.0000000964 10
-2.2957952 -2.1159797 2.0000000869 10
-1.4037576 -2.1384552 2.0000000994 10
-1.3761125 -2.1462939 2.0000000994 10
-1.3250679 -2.1319795 2.0000000993 10
-1.2935619 -2.1166441 2.0000000981 10
-1.2485933 -2.1381865 2.0000000878 10
0.084819078 -2.1112113 2.0000000925 10
0.30807066 -2.1434214 2.0000000992 10
0.39304543 -2.1119773 2.0000000996 10
0.42926788 -2.1313295 2.0000000981 10
0.6807313 -2.1223545 2.000000098 10
0.77372169 -2.1076517 2.000000097 10
0.82577342 -2.1144896 2.000000099 10
0.8672806 -2.1233559 2.0000000987 10
0.90894789 -2.1157725 2.0000000982 10
1.6231886 -2.1489432 2.0000000917 10
2.3121929 -2.1066992 2.0000000976 10
2.3694026 -2.1174748 2.0000000994 10
2.9760225 -2.1096663 2.0000000915 10
3.1250703 -2.1423903 2.0000000944 10
3.2514925 -2.1154046 2.0000000993 10
4.0835609 -2.1492977 2.0000000995 10
4.1044726 -2.145555 2.0000000995 10
5.6432943 -2.1221702 2.0000000976 10
5.6674924 -2.1138723 2.0000000976 10
5.7373462 -2.1279538 2.0000000975 10
5.7625289 -2.1236835 2.0000000959 10
-5.955101 -2.0848522 2.0000000967 10
-5.9114861 -2.0778306 2.0000000975 10
-5.8942504 -2.077517 2.0000000965 10
-5.8336005 -2.0514982 2.0000000975 10
-5.6655369 -2.0937436 2.0000000968 10
-2.3552814 -2.0737817 2.0000000979 10
-2.3333538 -2.0736234 2.0000000962 10
-2.2976267 -2.0764055 2.000000087 10
-1.3289044 -2.0872717 2.0000000949 10
-1.2538881 -2.0839477 2.0000000989 10
-1.2337526 -2.0634549 2.0000000974 10
0.39377403 -2.0983925 2.0000000977 10
0.94737244 -2.0857978 2.0000000977 10
0.96623778 -2.0757148 2.0000000996 10
1.4353654 -2.0585158 2.000000098 10
1.5459118 -2.088922 2.0000000986 10
1.5701411 -2.069876 2.0000000987 10
5.6574259 -2.0677011 2.0000000976 10
5.7421556 -2.0710201 2.0000000962 10
5.7646141 -2.0749619 2.0000000965 10
-5.8666968 -2.0044482 2.0000000975 10
-5.7386289 -2.0234971 2.0000000905 10
-5.5460825 -2.0242903 2.0000000968 10
-2.357414 -2.0215247 2.0000000976 10
-2.3334754 -2.03038 2.0000000962 10
-1.5496724 -2.0046213 2.0000000994 10
-1.2662139 -2.0257676 2.0000000961 10
-1.2179521 -2.0149138 2.0000000951 10
-1.1989479 -2.0189071 2.0000000989 10
0.25629529 -2.015707 2.0000000962 10
0.38996816 -2.0364459 2.0000000992 10
0.61480474 -2.02791 2.0000000988 10
0.96537602 -2.016222 2.0000000987 10
1.4029307 -2.0454357 2.0000000995 10
1.5746858 -2.0134878 2.000000095 10
2.204993 -2.0301607 2.0000000983 10
2.8581114 -2.0498421 2.0000000999 10
3.0194564 -2.0160632 2.0000000928 10
3.129725 -2.0035801 2.0000000988 10
3.1708333 -2.0295143 2.0000000993 10
5.6640568 -2.0318975 2.0000000911 10
5.7426882 -2.0226481 2.0000000959 10
5.7659535 -2.0239394 2.0000000965 10
-6.5129528 -1.9524386 2.0000000983 10
-6.498498 -1.9752502 2.0000000835 10
-5.6692982 -1.9826732 2.0000000944 10
-5.5749807 -1.9910382 2.0000000907 10
-2.3572443 -1.9675483 2.0000000962 10
-2.3324716 -1.9764419 2.0000000961 10
-2.08652 -1.9879653 2.0000000994 10
-1.2220649 -1.9787221 2.0000000965 10
-1.1848981 -1.9616933 2.0000000951 10
-0.20579648 -1.9979813 2.0000000992 10
0.18783367 -1.9663057 2.0000000973 10
0.47769475 -1.9758945 2.0000000979 10
0.72200769 -1.9763205 2.0000000982 10
0.7556625 -1.9592364 2.0000000994 10
0.81950182 -1.9629912 2.0000000994 10
0.87758344 -1.9641693 2.0000000982 10
0.98491645 -1.9750491 2.0000000987 10
1.5141941 -1.98588 2.0000000964 10
1.5629821 -1.976198 2.0000000988 10
1.6196471 -1.9795521 2.0000000989 10
2.2968779 -1.964926 2.0000000994 10
2.6896884 -1.9905276 2.0000000977 10
2.8510747 -1.9975212 2.0000000992 10
2.9960237 -1.9865205 2.0000000998 10
3.04263 -1.9741094 2.0000000967 10
5.6608534 -1.9945045 2.0000000912 10
5.7363014 -1.9756697 2.0000000961 10
5.7669802 -1.9766332 2.0000000957 10
-6.5356832 -1.9252388 2.0000000961 10
-6.4834433 -1.9294097 2.0000000931 10
-5.8805556 -1.9475479 2.0000000965 10
-5.6746378 -1.9353912 2.0000000988 10
-5.5070496 -1.9072602 2.0000000973 10
-2.3598528 -1.9217397 2.0000000937 10
-2.3326018 -1.9247479 2.0000000973 10
-2.2766309 -1.9299998 2.0000000874 10
-1.9757818 -1.9076883 2.0000000977 10
-1.2078243 -1.9390424 2.0000000979 10
-1.1810347 -1.9338758 2.0000000962 10
-1.1444749 -1.9188328 2.0000000952 10
0.46597445 -1.9332695 2.0000000993 10
0.52137756 -1.9172831 2.0000000985 10
0.55913997 -1.9293344 2.0000000996 10
0.74141991 -1.9212964 2.0000000982 10
0.76525414 -1.9277554 2.0000000988 10
0.82037008 -1.9051392 2.0000000931 10
0.85963571 -1.940819 2.0000000982 10
0.90123022 -1.9468076 2.0000000981 10
0.99068707 -1.9142967 2.0000000988 10
1.5175968 -1.9406962 2.0000000982 10
1.5602649 -1.9308666 2.0000000986 10
1.6305196 -1.9189789 2.0000000995 10
2.873275 -1.9431267 2.0000000918 10
2.9422922 -1.9070055 2.0000000996 10
2.97855 -1.9236103 2.0000000928 10
3.0643373 -1.9170671 2.0000000993 10
5.7386928 -1.9274646 2.0000000954 10
5.7599072 -1.9237604 2.0000000963 10
-6.5763206 -1.8841023 2.0000000965 10
-6.5293326 -1.8780082 2.0000000962 10
-6.4724922 -1.8653731 2.0000000838 10
-5.8822885 -1.8972905 2.0000000971 10
-5.517745 -1.8747332 2.0000000969 10
-5.4700952 -1.8793904 2.000000097 10
-5.4412303 -1.8726876 2.0000000969 10
-5.3995061 -1.8648417 2.0000000989 10
-2.3579535 -1.8756882 2.0000000957 10
-2.3310952 -1.8739533 2.0000000974 10
-2.2947652 -1.8635159 2.0000000874 10
0.51051879 -1.8761437 2.0000000995 10
0.71293712 -1.8703825 2.0000000967 10
0.77239192 -1.8587855 2.0000000945 10
0.8247174 -1.8638808 2.0000000969 10
0.87858564 -1.8711524 2.0000000946 10
0.94610381 -1.8909364 2.0000000944 10
1.3729951 -1.8985355 2.0000000983 10
1.5326983 -1.8644147 2.0000000968 10
1.5540051 -1.8781645 2.0000000977 10
2.465409 -1.8678927 2.0000000945 10
2.7180614 -1.8634548 2.0000000983 10
2.7646232 -1.8833582 2.0000000967 10
2.864341 -1.8639064 2.0000000992 10
2.9279456 -1.8719876 2.0000000985 10
2.982918 -1.8654906 2.0000000988 10
3.0098748 -1.8515947 2.0000000998 10
3.0839214 -1.8632962 2.0000000993 10
5.7310438 -1.876633 2.0000000961 10
5.7573438 -1.8813803 2.0000000951 10
-6.5580783 -1.824641 2.0000000957 10
-6.5275764 -1.8237044 2.0000000939 10
-6.484868 -1.8391161 2.0000000838 10
-6.3821583 -1.8307178 2.0000000989 10
-5.4211526 -1.8227677 2.0000000962 10
-5.3507843 -1.8427289 2.0000000964 10
-2.3593829 -1.8253582 2.0000000944 10
-2.3374269 -1.8286182 2.0000000976 10
-2.290839 -1.8164101 2.0000000875 10
-1.9700089 -1.8463044 2.0000000979 10
0.12112582 -1.8261578 2.0000000968 10
0.27227402 -1.8143432 2.0000000992 10
0.77017617 -1.8173826 2.0000000967 10
0.80634141 -1.8120317 2.0000000957 10
0.87446898 -1.8191572 2.0000000981 10
0.92295569 -1.8295784 2.0000000981 10
0.9652977 -1.8165146 2.0000000983 10
1.5249928 -1.823264 2.0000000975 10
1.5614856 -1.8267397 2.0000000975 10
1.6202245 -1.8093958 2.0000000908 10
1.6710714 -1.8246138 2.0000000995 10
2.7412269 -1.8481901 2.0000000987 10
2.7928057 -1.8347521 2.0000000998 10
2.9289365 -1.8257233 2.000000099 10
2.9682395 -1.8300558 2.0000000989 10
3.0035348 -1.8419024 2.0000000988 10
3.0508854 -1.8391266 2.0000000995 10
5.6845732 -1.8139842 2.0000000845 10
5.7363472 -1.8367848 2.0000000919 10
5.760355 -1.8413613 2.0000000844 10
-6.5608363 -1.7868499 2.0000000962 10
-6.5261559 -1.7712854 2.0000000971 10
-6.4968362 -1.7710004 2.0000000975 10
-6.4403634 -1.7813141 2.0000000975 10
-5.5797052 -1.7576413 2.0000000967 10
-5.4138579 -1.7849307 2.0000000976 10
-5.3237648 -1.7919912 2.0000000849 10
-2.3572106 -1.777427 2.0000000946 10
-2.3332627 -1.7741773 2.0000000974 10
-2.2787542 -1.7554679 2.0000000876 10
0.2431016 -1.7905718 2.0000000986 10
0.27999616 -1.7688344 2.0000000996 10
0.31367862 -1.7731606 2.0000000962 10
0.60775352 -1.788969 2.0000000981 10
0.72860938 -1.7684349 2.000000099 10
0.78140211 -1.7831692 2.0000000973 10
0.82114947 -1.7782495 2.000000098 10
0.86465573 -1.781713 2.0000000988 10
0.92632025 -1.771154 2.0000000975 10
0.96420038 -1.7645667 2.000000099 10
1.0263032 -1.7795967 2.0000000987 10
1.4870701 -1.7852377 2.000000099 10
1.5265771 -1.7808704 2.0000000982 10
1.5668547 -1.7640464 2.0000000988 10
1.9869654 -1.7797205 2.0000000995 10
2.058476 -1.7695634 2.0000000908 10
2.7079649 -1.7539582 2.0000000995 10
2.8823318 -1.7910938 2.0000000995 10
2.9396029 -1.7789084 2.0000000993 10
2.978339 -1.7823427 2.0000000993 10
3.0298753 -1.7730924 2.0000000993 10
3.8382485 -1.7533925 2.0000000866 10
5.5610428 -1.7694113 2.0000000847 10
5.6055727 -1.7565694 2.0000000986 10
5.6763225 -1.7913208 2.000000093 10
5.7278633 -1.7633413 2.0000000969 10
-6.5639668 -1.7229216 2.0000000974 10
-6.5291471 -1.724131 2.0000000971 10
-6.4840312 -1.7039778 2.0000000964 10
-6.2195673 -1.7135246 2.0000000989 10
-6.1612649 -1.7301269 2.0000000965 10
-5.3665843 -1.7310834 2.0000000967 10
-5.3314228 -1.7379408 2.0000000967 10
-5.1976161 -1.7265003 2.0000000957 10
-2.3576081 -1.7220409 2.0000000939 10
-2.3406715 -1.7214352 2.000000098 10
-2.2817104 -1.7278789 2.0000000911 10
-1.8916471 -1.7050579 2.0000000992 10
-0.055574179 -1.7234221 2.0000000998 10
0.28330812 -1.72481 2.0000000967 10
0.32181257 -1.7154137 2.0000000967 10
0.36750245 -1.7275505 2.0000000996 10
0.62589645 -1.7234671 2.0000000992 10
0.66445756 -1.7062178 2.0000000981 10
0.71696484 -1.74891 2.0000000986 10
0.78245044 -1.7186333 2.0000000985 10
0.81075203 -1.7352867 2.0000000986 10
0.93854237 -1.729949 2.0000000981 10
0.97024477 -1.7366945 2.0000000988 10
1.0169991 -1.7258253 2.0000000981 10
1.9737848 -1.7158854 2.0000000979 10
2.0089054 -1.7107935 2.0000000985 10
2.0898564 -1.7106419 2.0000000975 10
2.1185927 -1.7101524 2.0000000974 10
2.1890435 -1.7174888 2.000000098 10
2.6750233 -1.7217808 2.0000000993 10
2.7312748 -1.7364464 2.0000000992 10
2.7662318 -1.7280989 2.0000000995 10
2.9557948 -1.7463496 2.0000000992 10
3.7918251 -1.7208457 2.0000000976 10
3.8110161 -1.7138351 2.000000093 10
3.8725185 -1.7068667 2.0000000932 10
3.9204981 -1.7153352 2.0000000906 10
3.964592 -1.7207335 2.0000000912 10
5.625906 -1.7314564 2.0000000934 10
5.6686044 -1.7261343 2.0000000964 10
5.7330799 -1.7287345 2.0000000957 10
5.7588172 -1.7175006 2.0000000998 10
-6.5513253 -1.6592044 2.0000000946 10
-6.5280218 -1.6905545 2.0000000974 10
-6.4762549 -1.6647174 2.0000000967 10
-2.357218 -1.6780298 2.0000000949 10
-2.3381846 -1.6742269 2.0000000965 10
-2.2908087 -1.6702497 2.0000000967 10
0.28653979 -1.6837685 2.0000000971 10
0.31802016 -1.6812862 2.0000000967 10
0.37172389 -1.6861006 2.0000000962 10
0.70775485 -1.6513755 2.0000000995 10
0.78336126 -1.6766044 2.0000000982 10
0.83443499 -1.6680425 2.0000000987 10
0.86759138 -1.6655402 2.000000098 10
0.95642066 -1.6849124 2.0000000995 10
1.0262555 -1.6804343 2.0000000988 10
1.0753834 -1.6777675 2.0000000992 10
1.3235683 -1.6659594 2.0000000993 10
1.9334017 -1.6737926 2.0000000969 10
1.9774075 -1.6906229 2.0000000961 10
2.0248268 -1.677986 2.000000097 10
2.0820143 -1.6776862 2.0000000973 10
2.1208801 -1.6837065 2.0000000959 10
2.1680136 -1.6754862 2.0000000977 10
2.2074933 -1.6956785 2.0000000985 10
2.4131393 -1.6953375 2.0000000995 10
2.6716061 -1.6919136 2.0000000918 10
3.0017469 -1.6569231 2.0000000992 10
3.7914295 -1.6903429 2.0000000901 10
3.8241749 -1.6881843 2.0000000924 10
3.8722277 -1.6822854 2.0000000938 10
3.9260235 -1.6886883 2.0000000937 10
3.958358 -1.668213 2.0000000948 10
5.6364298 -1.6888564 2.0000000833 10
5.6685114 -1.6547344 2.0000000845 10
5.7355695 -1.6711613 2.0000000952 10
5.7700472 -1.6695188 2.0000000995 10
-6.5275602 -1.6209821 2.0000000946 10
-5.9244885 -1.619246 2.0000000841 10
-5.4640698 -1.626853 2.0000000983 10
-2.3584208 -1.6277792 2.0000000938 10
-2.3382263 -1.6249727 2.0000000959 10
-1.789619 -1.6483576 2.0000000976 10
-1.7408175 -1.6256094 2.0000000886 10
-1.1857173 -1.6373994 2.0000000992 10
-0.1434288 -1.6485481 2.000000099 10
0.074143171 -1.6017263 2.0000000993 10
0.31599379 -1.6408014 2.0000000999 10
0.35760105 -1.6477015 2.0000000988 10
0.67493993 -1.6318811 2.0000000995 10
0.73790193 -1.6268418 2.0000000995 10
0.78009695 -1.6251255 2.0000000993 10
0.81332374 -1.6165299 2.0000000992 10
0.87563479 -1.6388723 2.0000000988 10
0.92292368 -1.6403661 2.0000000995 10
1.068505 -1.6360536 2.000000098 10
1.5634933 -1.6439923 2.0000000993 10
2.0187714 -1.6452148 2.0000000993 10
2.066797 -1.6438744 2.0000000915 10
2.1823123 -1.6335872 2.0000000962 10
2.220957 -1.6288426 2.0000000917 10
2.7454722 -1.6332392 2.0000000943 10
3.0383668 -1.6467297 2.0000000992 10
3.0777225 -1.6064389 2.0000000992 10
5.6828446 -1.6062453 2.0000000845 10
5.7345324 -1.6192387 2.000000095 10
5.7580142 -1.6244017 2.0000000957 10
-6.4605913 -1.5995874 2.0000000826 10
-5.9672761 -1.5784839 2.0000000967 10
-5.437748 -1.5715523 2.0000000967 10
-2.357089 -1.5769662 2.0000000971 10
-2.3358309 -1.5770359 2.0000000948 10
-1.7098126 -1.5811589 2.0000000977 10
-0.027156353 -1.5554688 2.000000098 10
0.75056839 -1.5580113 2.0000000983 10
0.80398428 -1.5618687 2.0000000982 10
0.86067677 -1.5877156 2.000000098 10
0.91405344 -1.5788318 2.0000000987 10
0.9673028 -1.5995734 2.0000000995 10
2.0885739 -1.5651574 2.000000097 10
2.2072897 -1.590915 2.0000000995 10
2.742403 -1.5768359 2.0000000998 10
2.994215 -1.5655367 2.0000000992 10
5.7349253 -1.5670227 2.000000095 10
-5.7873712 -1.5106914 2.0000000969 10
-5.2293096 -1.5043306 2.0000000985 10
-4.9142942 -1.5234804 2.0000000857 10
-2.3581913 -1.5248131 2.0000000931 10
-2.3333759 -1.5234969 2.0000000968 10
-2.2847319 -1.5306047 2.0000000983 10
-1.6701895 -1.5223325 2.0000000988 10
-1.6336683 -1.5284952 2.0000000979 10
0.79519796 -1.5321951 2.0000000982 10
0.83494067 -1.5074477 2.000000098 10
0.87652731 -1.5099266 2.0000000982 10
1.4506813 -1.5309267 2.0000000993 10
2.9734557 -1.511827 2.000000098 10
3.0253103 -1.5107708 2.000000098 10
5.6852574 -1.51618 2.0000000845 10
5.7351551 -1.528432 2.0000000951 10
5.7586441 -1.5119147 2.0000000998 10
-5.4650216 -1.4952803 2.0000000853 10
-5.4374375 -1.4629345 2.0000000968 10
-5.181869 -1.4954863 2.0000000985 10
-4.8794765 -1.4589744 2.0000000957 10
-2.3572514 -1.4687191 2.0000000946 10
-2.3389635 -1.4763211 2.0000000962 10
-2.2852862 -1.472585 2.000000099 10
-1.9013958 -1.4789333 2.000000098 10
-1.6528671 -1.4781871 2.0000000981 10
-1.6059889 -1.4685823 2.0000000979 10
0.30180132 -1.4848659 2.0000000969 10
0.76836157 -1.4518062 2.0000000983 10
0.80737996 -1.4936707 2.0000000996 10
0.87995028 -1.4556313 2.000000098 10
1.4682708 -1.4827635 2.0000000998 10
2.122395 -1.4533999 2.0000000968 10
2.2816105 -1.4542263 2.0000000905 10
2.5877542 -1.4680302 2.0000000993 10
2.6429513 -1.4661748 2.0000000988 10
2.6659949 -1.4860271 2.0000000988 10
3.0078442 -1.4583273 2.000000099 10
5.6818399 -1.4648619 2.0000000919 10
5.7352352 -1.4740731 2.0000000921 10
5.7629905 -1.4722735 2.0000000996 10
-4.8515134 -1.4049308 2.0000000993 10
-2.3573201 -1.4240432 2.0000000959 10
-2.335964 -1.4252362 2.0000000968 10
-1.6332557 -1.435508 2.000000099 10
-1.5813138 -1.416782 2.0000000959 10
-1.5417826 -1.4172783 2.0000000913 10
0.37952447 -1.4059145 2.0000000967 10
0.99840379 -1.4151561 2.0000000993 10
2.1319919 -1.4437194 2.0000000985 10
2.2160544 -1.4249623 2.0000000994 10
2.2579901 -1.409481 2.000000098 10
2.6454122 -1.4047397 2.0000000924 10
2.6571879 -1.4133983 2.000000098 10
3.0737028 -1.4278467 2.000000098 10
5.6868143 -1.4268427 2.0000000845 10
5.7369318 -1.4246615 2.0000000937 10
5.7570896 -1.4280214 2.0000000961 10
-2.3560047 -1.3735536 2.0000000982 10
-2.3348179 -1.3748841 2.0000000964 10
-1.850938 -1.3942796 2.0000000977 10
-1.7516626 -1.3793157 2.0000000979 10
-1.6093277 -1.3715186 2.0000000993 10
-1.5733725 -1.3784496 2.0000000967 10
-1.5385624 -1.384706 2.0000000958 10
-0.083583832 -1.3999841 2.0000000995 10
0.089096308 -1.3672652 2.0000000998 10
0.19933021 -1.3969047 2.0000000969 10
0.84065324 -1.3969254 2.0000000982 10
0.98844552 -1.3556981 2.0000000983 10
1.0510604 -1.3916461 2.0000000993 10
2.1859622 -1.3588969 2.0000000981 10
2.2299793 -1.3835282 2.0000000981 10
2.2757494 -1.3893845 2.0000000995 10
2.5593243 -1.3927813 2.0000000992 10
2.6265426 -1.3542314 2.000000099 10
5.6801639 -1.3758843 2.0000000845 10
5.736412 -1.3731357 2.0000000926 10
5.7545004 -1.375458 2.0000000996 10
-5.5867634 -1.3240395 2.0000000985 10
-4.9627891 -1.3057957 2.0000000969 10
-4.7463531 -1.3211677 2.0000000979 10
-2.3569059 -1.3196423 2.0000000964 10
-2.3356678 -1.3258392 2.0000000963 10
-1.8293568 -1.3176175 2.0000000988 10
-1.7334219 -1.3188387 2.0000000979 10
-1.5301307 -1.3225718 2.0000000979 10
0.10245532 -1.335873 2.0000000914 10
0.156672 -1.3059511 2.0000000994 10
0.87860847 -1.3278751 2.0000000981 10
1.0303545 -1.3400569 2.0000000983 10
1.4142613 -1.3294466 2.0000000986 10
1.8131561 -1.3001924 2.0000000985 10
2.1852086 -1.3382776 2.0000000934 10
2.235477 -1.3309819 2.0000000987 10
2.2722964 -1.3362679 2.0000000975 10
2.5124412 -1.3284435 2.0000000959 10
2.594239 -1.3386259 2.0000000977 10
2.6496172 -1.3430483 2.0000000998 10
5.6845779 -1.3355408 2.0000000845 10
5.7334461 -1.32278 2.0000000948 10
5.7566133 -1.3271996 2.0000000927 10
-5.9303317 -1.276661 2.0000000959 10
-5.8736844 -1.2589678 2.0000000951 10
-5.3782077 -1.2619994 2.000000099 10
-2.3573644 -1.2733821 2.0000000936 10
-2.3341973 -1.2785529 2.000000097 10
-2.0718942 -1.2684095 2.0000000982 10
-1.5092201 -1.2505698 2.0000000987 10
0.076757193 -1.2846978 2.0000000996 10
0.89081264 -1.2571142 2.0000000993 10
1.0310807 -1.2824001 2.0000000983 10
1.0553095 -1.2927132 2.0000000981 10
2.0841801 -1.2757695 2.0000000969 10
5.6922956 -1.2838583 2.0000000845 10
5.7353349 -1.2755908 2.0000000955 10
5.7669058 -1.2795203 2.0000000946 10
-5.9007697 -1.2294033 2.0000000938 10
-5.8672891 -1.2233273 2.0000000925 10
-5.3040299 -1.2373416 2.000000097 10
-5.2827201 -1.2144077 2.000000094 10
-4.630651 -1.2016578 2.0000000971 10
-2.3591845 -1.2233173 2.0000000955 10
-2.336211 -1.2242553 2.0000000965 10
-2.2482886 -1.2334547 2.0000000989 10
-1.669412 -1.2171352 2.0000000983 10
0.14878958 -1.227448 2.0000000845 10
0.16431916 -1.2376654 2.0000000967 10
0.25448048 -1.2278612 2.000000097 10
0.86321783 -1.239902 2.0000000983 10
1.2875896 -1.2252616 2.0000000992 10
2.187439 -1.240381 2.0000000969 10
5.6898594 -1.2236214 2.0000000845 10
5.7338476 -1.2249718 2.0000000967 10
5.7632451 -1.2311742 2.0000000926 10
-5.8687487 -1.1885583 2.0000000841 10
-5.837409 -1.1728516 2.0000000962 10
-5.7846241 -1.1741989 2.0000000973 10
-5.3645225 -1.1970572 2.0000000985 10
-5.2091084 -1.1758366 2.0000000861 10
-5.0663848 -1.1544013 2.000000097 10
-2.3572421 -1.1698598 2.0000000954 10
-2.3320048 -1.1784898 2.0000000957 10
-1.7560489 -1.1943123 2.0000000995 10
-1.6780128 -1.1850944 2.0000000888 10
0.11766005 -1.1622417 2.0000000989 10
0.19433016 -1.1813784 2.0000000995 10
1.0065095 -1.1512835 2.0000000993 10
1.2353467 -1.1651473 2.0000000987 10
1.36968 -1.1755491 2.0000000971 10
1.8707701 -1.1641793 2.0000000985 10
2.1728821 -1.1719582 2.0000000957 10
2.2534881 -1.1538875 2.000000098 10
5.696104 -1.1716872 2.0000000863 10
5.7352328 -1.1745656 2.000000095 10
5.7608099 -1.1782138 2.0000000931 10
-5.8726068 -1.1154742 2.0000000967 10
-5.82657 -1.1132404 2.0000000923 10
-5.7786684 -1.1192565 2.0000000968 10
-5.7119226 -1.1365504 2.0000000985 10
-5.3834481 -1.1311061 2.000000097 10
-5.2140675 -1.1379573 2.0000000968 10
-5.1849933 -1.1228541 2.000000098 10
-4.9278278 -1.1017172 2.0000000943 10
-4.5898938 -1.1211066 2.0000000973 10
-2.3589449 -1.1269647 2.0000000962 10
-2.3368478 -1.1242765 2.0000000961 10
-2.2823753 -1.135607 2.000000099 10
-2.0940824 -1.1249299 2.0000000992 10
-2.0282302 -1.1152925 2.0000000977 10
-1.7711961 -1.1057358 2.0000000982 10
-0.89983106 -1.113117 2.0000000995 10
0.2930167 -1.1228878 2.0000000824 10
1.1014481 -1.148952 2.000000095 10
1.1613785 -1.1011702 2.0000000986 10
1.2703094 -1.1365021 2.0000000992 10
1.3344219 -1.1299633 2.000000095 10
1.3695085 -1.1201299 2.000000095 10
4.1913161 -1.1455204 2.0000000998 10
4.2267122 -1.1453309 2.0000000998 10
5.7372622 -1.1283866 2.0000000946 10
5.7618876 -1.1293207 2.000000094 10
-5.9061737 -1.0635171 2.0000000968 10
-5.8729758 -1.0757682 2.0000000945 10
-5.826149 -1.0718789 2.0000000945 10
-5.7637272 -1.0948761 2.0000000973 10
-5.7448606 -1.052336 2.0000000963 10
-5.1167479 -1.0917284 2.0000000968 10
-5.0501704 -1.0673382 2.0000000975 10
-4.7037406 -1.0690985 2.000000097 10
-4.6330795 -1.0839667 2.0000000985 10
-2.3573189 -1.074713 2.0000000946 10
-2.3361461 -1.0746661 2.0000000962 10
-2.266053 -1.0928087 2.0000000982 10
-2.0201728 -1.0645304 2.0000000989 10
-1.6562612 -1.0537851 2.0000000995 10
-1.5208338 -1.0815068 2.0000000973 10
0.2321682 -1.0527081 2.0000000995 10
0.32774734 -1.0830834 2.0000000939 10
0.41524112 -1.0501068 2.0000000998 10
1.2286606 -1.0965106 2.0000000988 10
1.3685819 -1.0757148 2.0000000952 10
2.9748025 -1.0706148 2.0000000992 10
3.9962037 -1.0924374 2.0000000815 10
5.2386522 -1.0648371 2.0000000962 10
5.2889366 -1.0857102 2.0000000959 10
5.69629 -1.084412 2.0000000835 10
5.7305837 -1.0750757 2.0000000973 10
5.7644744 -1.0763366 2.0000000939 10
-5.9046025 -1.0486763 2.0000000939 10
-5.874423 -1.0229608 2.0000000952 10
-5.8454437 -1.0367731 2.0000000907 10
-5.7900152 -1.013665 2.0000000987 10
-5.707015 -1.0134616 2.0000000968 10
-5.6870885 -1.0344741 2.000000097 10
-5.1079826 -1.0222387 2.000000097 10
-5.0992436 -1.0170472 2.0000000968 10
-4.8589578 -1.0190351 2.0000000993 10
-4.8217287 -1.024232 2.0000000987 10
-4.5682974 -1.0280091 2.0000000976 10
-2.3592017 -1.0256044 2.0000000983 10
-2.3337002 -1.0243148 2.0000000969 10
-2.2382131 -1.0357196 2.000000099 10
-2.1902244 -1.0070834 2.0000000977 10
-2.0449066 -1.0322742 2.0000000992 10
-1.960789 -1.0292109 2.0000000983 10
-1.4803588 -1.0462135 2.0000000989 10
-0.70684934 -1.0442674 2.0000000993 10
0.31075335 -1.023105 2.0000000901 10
0.57613909 -1.0348587 2.0000000999 10
0.78190815 -1.0384197 2.0000000915 10
1.0281491 -1.0309312 2.0000000993 10
1.0627768 -1.0168364 2.0000000983 10
1.3510711 -1.0011145 2.0000000992 10
2.0881209 -1.0373037 2.000000097 10
3.868155 -1.0156473 2.0000000995 10
4.0401917 -1.0490932 2.0000000994 10
4.1977091 -1.0417424 2.0000000921 10
4.3056726 -1.0110409 2.0000000723 10
5.730782 -1.026951 2.0000000912 10
5.7501197 -1.0354838 2.0000000998 10
-5.9103332 -0.98124933 2.0000000968 10
-5.8772883 -0.97536498 2.0000000961 10
-5.8452625 -0.96863019 2.0000000917 10
-5.6613197 -0.99422526 2.0000000846 10
-5.0220075 -0.95359159 2.0000000975 10
-4.8338623 -0.98922396 2.0000000983 10
-4.7993727 -0.98664403 2.0000000968 10
-4.684742 -0.98886013 2.0000000874 10
-4.6093774 -0.97056532 2.0000000985 10
-4.5886154 -0.98671484 2.0000000985 10
-2.3568766 -0.97668773 2.0000000954 10
-2.3336217 -0.97465897 2.0000000975 10
-2.2567222 -0.99776435 2.0000000951 10
-2.2028985 -0.98256516 2.0000000992 10
-2.1166625 -0.99932837 2.0000000977 10
-1.9376576 -0.96420121 2.000000098 10
-1.8813282 -0.99961782 2.0000000983 10
-1.5337572 -0.98037601 2.0000000986 10
-1.455547 -0.97439933 2.0000000981 10
-1.3358083 -0.98078561 2.0000000977 10
0.26611367 -0.96238005 2.0000000995 10
0.32237858 -0.98837602 2.0000000976 10
0.35530114 -0.95365 2.0000000982 10
0.57937646 -0.96414995 2.0000000999 10
0.70253897 -0.98623538 2.0000000971 10
0.92759198 -0.97040462 2.0000000985 10
1.1390855 -0.96866179 2.0000000951 10
1.3353777 -0.98136139 2.0000000987 10
1.9774122 -0.96048379 2.0000000901 10
2.0272398 -0.98555446 2.0000000993 10
3.7305171 -0.95033097 2.0000000977 10
3.7805624 -0.95035106 2.0000000976 10
3.8353314 -0.97287691 2.0000000939 10
3.8548131 -0.96604419 2.0000000993 10
3.9004176 -0.95538676 2.0000000799 10
3.9684763 -0.99789023 2.0000000876 10
5.1359119 -0.99068993 2.0000000965 10
5.5692272 -0.96300143 2.0000000896 10
5.6141706 -0.96776444 2.0000000962 10
5.6768918 -0.95661026 2.0000000921 10
5.7325425 -0.96983653 2.0000000985 10
5.7595568 -0.99491757 2.0000000691 10
-5.9006209 -0.94750285 2.0000000987 10
-5.871839 -0.92160797 2.0000000952 10
-5.82441 -0.9106825 2.0000000939 10
-5.4588752 -0.91128206 2.0000000969 10
-5.0699654 -0.93979263 2.000000097 10
-4.9270864 -0.9172039 2.0000000926 10
-4.7449446 -0.94680238 2.0000000976 10
-4.6637735 -0.90713263 2.000000087 10
-4.6276093 -0.93454838 2.000000087 10
-4.5867705 -0.92288965 2.0000000939 10
-2.3557868 -0.9226439 2.0000000982 10
-2.3354073 -0.92776591 2.0000000977 10
-1.9302012 -0.93368381 2.0000000985 10
-1.3877422 -0.90593904 2.0000000983 10
0.28286651 -0.91770428 2.0000000951 10
0.33391553 -0.91664875 2.0000000962 10
0.36495969 -0.91607493 2.0000000884 10
0.57760251 -0.91275549 2.0000000999 10
0.70184517 -0.9328506 2.0000000971 10
0.99881893 -0.90775299 2.0000000985 10
1.0102322 -0.92470002 2.0000000973 10
1.2467158 -0.93283838 2.0000000971 10
1.9443392 -0.91819489 2.0000000975 10
1.9730699 -0.91629773 2.0000000949 10
2.0145118 -0.91131485 2.0000000971 10
2.0812531 -0.92070717 2.0000000945 10
2.1239796 -0.90434062 2.0000000964 10
2.1677113 -0.90553308 2.0000000971 10
3.7886508 -0.91834331 2.000000089 10
3.8238044 -0.92363757 2.0000000906 10
3.8901532 -0.92417312 2.0000000886 10
3.9234085 -0.91544628 2.0000000905 10
3.9710283 -0.93379802 2.0000000996 10
4.0015306 -0.93542671 2.0000000992 10
4.089426 -0.94440144 2.0000000715 10
5.5961685 -0.94610745 2.0000000961 10
5.6187258 -0.92513156 2.0000000948 10
5.672133 -0.93639296 2.0000000965 10
5.7325311 -0.92415226 2.0000000942 10
5.7591643 -0.91581994 2.0000000979 10
-5.8676658 -0.87325239 2.0000000962 10
-5.8413315 -0.88203388 2.0000000892 10
-5.4743018 -0.88576341 2.0000000987 10
-5.1756964 -0.88669288 2.0000000955 10
-5.1113334 -0.87792838 2.0000000963 10
-5.0258389 -0.87853223 2.000000097 10
-4.7962284 -0.87083709 2.0000000958 10
-4.7135267 -0.89491963 2.0000000945 10
-4.5777521 -0.87460303 2.0000000912 10
-4.4695821 -0.88666391 2.0000000973 10
-2.357043 -0.87103373 2.0000000976 10
-2.3341928 -0.87742352 2.0000000971 10
-2.2999024 -0.89843965 2.0000000992 10
-1.9658531 -0.87356424 2.0000000992 10
-1.9368759 -0.89852452 2.0000000983 10
-1.8678465 -0.85680509 2.0000000994 10
-1.5179198 -0.88688087 2.0000000983 10
-1.4662073 -0.89628363 2.0000000983 10
-1.4412212 -0.86379409 2.000000099 10
0.29370308 -0.88135618 2.0000000971 10
0.32285345 -0.87999207 2.0000000951 10
0.35971367 -0.87862128 2.0000000908 10
0.45538378 -0.8536191 2.0000000983 10
0.79643381 -0.85343504 2.0000000919 10
1.1257887 -0.87872672 2.0000000993 10
1.2782071 -0.87485623 2.0000000998 10
1.9398962 -0.89030117 2.0000000965 10
1.9795725 -0.88802963 2.0000000949 10
2.0286188 -0.88511544 2.000000098 10
2.0778613 -0.88472873 2.0000000948 10
2.1225245 -0.88539523 2.0000000959 10
2.1682644 -0.87789536 2.000000099 10
2.2174752 -0.87384611 2.0000000981 10
3.7952592 -0.89148742 2.0000000856 10
3.8167198 -0.8928355 2.0000000866 10
3.8724456 -0.88954121 2.0000000884 10
3.920516 -0.88927722 2.000000093 10
3.9575298 -0.87472832 2.0000000936 10
5.6383543 -0.89509106 2.000000099 10
5.6586313 -0.88931751 2.0000000999 10
5.7332978 -0.87532014 2.0000000937 10
5.7633667 -0.86717778 2.0000000996 10
-5.8668675 -0.82625568 2.0000000956 10
-5.8303399 -0.80880487 2.0000000968 10
-5.323729 -0.83601451 2.0000000986 10
-5.0838881 -0.82631373 2.0000000959 10
-5.0037456 -0.84791851 2.0000000986 10
-4.8909326 -0.82389069 2.0000000971 10
-4.7125163 -0.82868522 2.0000000982 10
-4.6748123 -0.83118784 2.0000000992 10
-4.6258082 -0.81355733 2.0000000939 10
-4.576334 -0.833848 2.0000000979 10
-4.4687977 -0.82411623 2.0000000971 10
-4.3826056 -0.81851602 2.0000000995 10
-2.3585598 -0.82388449 2.0000000982 10
-2.3353527 -0.82807678 2.0000000969 10
-1.9892033 -0.83858514 2.000000097 10
-1.9390205 -0.83177161 2.000000098 10
-1.8320804 -0.81745112 2.0000000975 10
-1.4931033 -0.84645915 2.0000000995 10
-1.4074059 -0.8148911 2.000000099 10
-1.378404 -0.8155812 2.0000000987 10
-1.3337007 -0.81781441 2.0000000981 10
0.3468473 -0.83926821 2.0000000914 10
0.37678766 -0.84889543 2.0000000952 10
0.48731756 -0.84430766 2.0000000983 10
0.5174365 -0.83124185 2.0000000999 10
0.58603132 -0.82678461 2.0000000999 10
0.71384978 -0.8383286 2.0000000971 10
0.8247202 -0.8321178 2.0000000967 10
1.0068316 -0.80673146 2.0000000974 10
1.2236804 -0.80780172 2.0000000954 10
1.4166873 -0.82840347 2.0000000998 10
2.0769241 -0.84768081 2.0000000996 10
2.1721547 -0.83794332 2.0000000996 10
5.7313232 -0.82220739 2.0000000959 10
5.7609768 -0.83099657 2.0000000921 10
-5.8718901 -0.7751314 2.0000000944 10
-5.8367863 -0.77957177 2.0000000968 10
-5.3446569 -0.79215693 2.000000097 10
-4.9610806 -0.79830915 2.0000000967 10
-4.6621985 -0.77265 2.0000000976 10
-4.6287813 -0.77510482 2.0000000959 10
-4.5840669 -0.76694328 2.0000000938 10
-4.3932953 -0.79287028 2.0000000995 10
-2.3590505 -0.7747997 2.0000000985 10
-2.3370352 -0.77392638 2.0000000977 10
-1.859436 -0.75013137 2.0000000993 10
-1.3529444 -0.77540517 2.0000000919 10
-1.3226162 -0.76186299 2.0000000983 10
-1.2893736 -0.75329137 2.0000000905 10
0.47942138 -0.78759027 2.0000000995 10
1.0767624 -0.79271126 2.0000000979 10
1.2713203 -0.77652454 2.0000000955 10
1.3668178 -0.76748347 2.0000000994 10
5.7331734 -0.77312618 2.0000000967 10
5.7590084 -0.78079969 2.0000000927 10
-5.8686357 -0.71981412 2.000000095 10
-5.8440847 -0.73430812 2.0000000948 10
-5.0286264 -0.74170148 2.0000000963 10
-4.9618344 -0.71544623 2.0000000973 10
-4.8580112 -0.73003781 2.0000000964 10
-4.8169661 -0.73338294 2.0000000981 10
-4.7613945 -0.72365987 2.0000000974 10
-4.7008834 -0.745579 2.0000000962 10
-4.6663961 -0.73710752 2.0000000971 10
-4.624332 -0.73316628 2.0000000971 10
-4.5922451 -0.72376168 2.0000000975 10
-4.5227909 -0.71733332 2.000000097 10
-2.3576221 -0.71893954 2.0000000981 10
-2.3361275 -0.7233783 2.000000097 10
-2.2998362 -0.73964572 2.0000000992 10
-1.8114405 -0.72209895 2.0000000969 10
-1.793753 -0.74381852 2.0000000971 10
-1.3515058 -0.7397927 2.0000000987 10
-1.3211231 -0.73867315 2.0000000977 10
-1.2828778 -0.72245854 2.0000000956 10
0.54552937 -0.70273066 2.0000000983 10
0.69205415 -0.70190358 2.0000000973 10
0.80553848 -0.71693778 2.0000000968 10
1.2236437 -0.72436476 2.0000000954 10
5.6983466 -0.73346329 2.0000000996 10
5.7341986 -0.72490323 2.0000000937 10
5.7680397 -0.72633952 2.0000000999 10
-5.8699088 -0.68631196 2.0000000976 10
-4.8562112 -0.68303585 2.0000000977 10
-4.8280082 -0.68994361 2.0000000968 10
-4.7794929 -0.67364264 2.0000000946 10
-4.7349606 -0.67738968 2.0000000944 10
-4.6905842 -0.66758001 2.0000000918 10
-4.6114731 -0.67475814 2.0000000976 10
-4.5950346 -0.68253255 2.0000000977 10
-4.4218564 -0.67847991 2.0000000979 10
-4.3257642 -0.69975996 2.0000000986 10
-4.1415658 -0.6836462 2.0000000973 10
-2.3579934 -0.67647535 2.000000098 10
-2.3362234 -0.67632318 2.0000000976 10
-2.0769162 -0.65626812 2.0000000993 10
-1.920018 -0.68235826 2.0000000948 10
-1.7681572 -0.65468717 2.0000000994 10
-1.7367694 -0.65101647 2.0000000936 10
-1.2686324 -0.68473959 2.0000000989 10
-1.2243173 -0.6914103 2.0000000981 10
0.5162828 -0.69893003 2.000000099 10
0.5685482 -0.69638276 2.0000000983 10
1.9715477 -0.69379497 2.0000000996 10
5.6707311 -0.68931127 2.0000000996 10
5.7355623 -0.67653453 2.0000000945 10
5.7553425 -0.67341918 2.0000000841 10
-5.81885 -0.63437092 2.000000098 10
-4.7852211 -0.63488364 2.0000000994 10
-4.7217903 -0.61834127 2.0000000982 10
-4.6786413 -0.61023927 2.0000000992 10
-4.3842602 -0.63446128 2.0000000985 10
-4.3194222 -0.61992741 2.0000000832 10
-4.2454376 -0.61137819 2.0000000986 10
-2.356853 -0.6268146 2.0000000983 10
-2.336405 -0.62594283 2.0000000981 10
-2.0165303 -0.63190806 2.000000099 10
-1.9634566 -0.63603306 2.0000000981 10
-1.8357966 -0.62375355 2.000000099 10
-1.734324 -0.64415616 2.0000000976 10
-1.6864018 -0.60820901 2.0000000969 10
-1.2624233 -0.64336932 2.000000098 10
-1.2247617 -0.62246561 2.0000000974 10
0.67593598 -0.60542798 2.0000000973 10
